ply
format ascii 1.0
comment PCL generated
element vertex 48
property float x
property float y
property float z
property uchar red
property uchar green
property uchar blue
end_header
-0.00798705 -0.16058352  0.24304043 255 0 255
-0.00283543 -0.14915169  0.20041849 255 0 255
 0.01799895 -0.16501212  0.24080673 255 0 255
 0.01820275 -0.16526858  0.2408204  255 0 255
 0.01866513 -0.16593021  0.24091939 255 0 255
 0.02100068 -0.17061868  0.24145928 255 0 255
 0.00062929 -0.1928241   0.18225447 255 0 255
 0.02137815 -0.15808598  0.23196909 255 0 255
 0.00145353 -0.14583797  0.22294027 255 0 255
-0.02828695 -0.16763951  0.19816993 255 0 255
-0.0194317 -0.161578   0.2378735 255 0 255
-0.02833789 -0.16758206  0.19814682 255 0 255
-0.0053052  -0.19262197  0.2473856  255 0 255
 0.00104785 -0.14610395  0.2057527  255 0 255
 0.01036897 -0.16302611  0.24395694 255 0 255
-0.02241765 -0.15860593  0.1996702  255 0 255
-0.00734931 -0.16070667  0.24324643 255 0 255
-0.00286873 -0.1488308   0.20068327 255 0 255
 0.01811636 -0.19291007  0.24175881 255 0 255
 0.020976   -0.17144346  0.24136499 255 0 255
-0.03014304 -0.19820035  0.21426767 255 0 255
-0.03406791 -0.18888137  0.21401313 255 0 255
 0.00408002 -0.16096123  0.1858264  255 0 255
 0.00522631 -0.14850909  0.2286501  255 0 255
-0.02222146 -0.16701208  0.19137189 255 0 255
 0.03431785 -0.187637    0.21752528 255 0 255
-0.02330943 -0.16918853  0.19106458 255 0 255
 0.00907748 -0.14754342  0.20471267 255 0 255
-0.0270403  -0.20217576  0.2193389  255 0 255
-0.02730965 -0.20180876  0.2192813  255 0 255
 0.02680132 -0.16665786  0.23357473 255 0 255
 0.00037408 -0.19277418  0.18227158 255 0 255
 0.02391021 -0.1595657   0.23042232 255 0 255
 0.00362094 -0.16197471  0.18510721 255 0 255
 0.00417856 -0.14804326  0.22829429 255 0 255
-0.02471619 -0.16837944  0.1929099  255 0 255
-0.02471539 -0.1683694   0.19291257 255 0 255
-0.02471523 -0.1683517   0.19291289 255 0 255
-0.01481056 -0.14804519  0.21566633 255 0 255
 0.02517107 -0.20022354  0.20089509 255 0 255
 0.02958989 -0.19643231  0.20760942 255 0 255
-0.02716857 -0.17956277  0.19702545 255 0 255
 0.03263254 -0.19086089  0.22244187 255 0 255
 0.03343142 -0.18726402  0.2066237  255 0 255
 0.03342498 -0.18726986  0.20660766 255 0 255
 0.03329553 -0.1873858   0.20630601 255 0 255
 0.03331676 -0.18736714  0.20635889 255 0 255
 0.03333417 -0.18735354  0.20640095 255 0 255
