ply
format ascii 1.0
comment PCL generated
element vertex 1070
property float x
property float y
property float z
property uchar red
property uchar green
property uchar blue
end_header
-0.02504773  0.08171544  0.19707643 255 0 255
-0.02387835  0.08128153  0.19026811 255 0 255
-0.02463485  0.0765158   0.18125272 255 0 255
-0.02298501  0.08421765  0.21783625 255 0 255
-0.02132145  0.07980154  0.21248022 255 0 255
-0.02504773  0.08171544  0.19707643 255 0 255
-0.02387835  0.08128153  0.19026811 255 0 255
-0.02463485  0.0765158   0.18125272 255 0 255
-0.02298501  0.08421765  0.21783625 255 0 255
-0.02132145  0.07980154  0.21248022 255 0 255
-0.02504773  0.08171544  0.19707643 255 0 255
-0.02387835  0.08128153  0.19026811 255 0 255
-0.02463485  0.0765158   0.18125272 255 0 255
-0.02298501  0.08421765  0.21783625 255 0 255
-0.02132145  0.07980154  0.21248022 255 0 255
-0.02504773  0.08171544  0.19707643 255 0 255
-0.02387835  0.08128153  0.19026811 255 0 255
-0.02463485  0.0765158   0.18125272 255 0 255
-0.02298501  0.08421765  0.21783625 255 0 255
-0.02132145  0.07980154  0.21248022 255 0 255
-0.02504773  0.08171544  0.19707643 255 0 255
-0.02387835  0.08128153  0.19026811 255 0 255
-0.02298501  0.08421765  0.21783625 255 0 255
-0.02132145  0.07980154  0.21248022 255 0 255
-0.02504773  0.08171544  0.19707643 255 0 255
-0.02387835  0.08128153  0.19026811 255 0 255
-0.02132145  0.07980154  0.21248022 255 0 255
-0.02504773  0.08171544  0.19707643 255 0 255
-0.02387835  0.08128153  0.19026811 255 0 255
-0.02132145  0.07980154  0.21248022 255 0 255
-0.02504773  0.08171544  0.19707643 255 0 255
-0.02387835  0.08128153  0.19026811 255 0 255
-0.02132145  0.07980154  0.21248022 255 0 255
-0.02504773  0.08171544  0.19707643 255 0 255
-0.02387835  0.08128153  0.19026811 255 0 255
-0.02132145  0.07980154  0.21248022 255 0 255
-0.02504773  0.08171544  0.19707643 255 0 255
-0.02387835  0.08128153  0.19026811 255 0 255
-0.02132145  0.07980154  0.21248022 255 0 255
-0.02504773  0.08171544  0.19707643 255 0 255
-0.02387835  0.08128153  0.19026811 255 0 255
-0.02132145  0.07980154  0.21248022 255 0 255
-0.02504773  0.08171544  0.19707643 255 0 255
-0.02387835  0.08128153  0.19026811 255 0 255
-0.02132145  0.07980154  0.21248022 255 0 255
-0.02504773  0.08171544  0.19707643 255 0 255
-0.02387835  0.08128153  0.19026811 255 0 255
-0.02132145  0.07980154  0.21248022 255 0 255
-0.02504773  0.08171544  0.19707643 255 0 255
-0.02387835  0.08128153  0.19026811 255 0 255
-0.02132145  0.07980154  0.21248022 255 0 255
-0.02504773  0.08171544  0.19707643 255 0 255
-0.02387835  0.08128153  0.19026811 255 0 255
-0.02132145  0.07980154  0.21248022 255 0 255
-0.02504773  0.08171544  0.19707643 255 0 255
-0.02387835  0.08128153  0.19026811 255 0 255
-0.02132145  0.07980154  0.21248022 255 0 255
-0.02504773  0.08171544  0.19707643 255 0 255
-0.02387835  0.08128153  0.19026811 255 0 255
-0.02132145  0.07980154  0.21248022 255 0 255
-0.02504773  0.08171544  0.19707643 255 0 255
-0.02387835  0.08128153  0.19026811 255 0 255
-0.02132145  0.07980154  0.21248022 255 0 255
-0.02504773  0.08171544  0.19707643 255 0 255
-0.02387835  0.08128153  0.19026811 255 0 255
-0.00898496  0.07239799  0.18042613 255 0 255
-0.02132145  0.07980154  0.21248022 255 0 255
-0.02504773  0.08171544  0.19707643 255 0 255
-0.02387835  0.08128153  0.19026811 255 0 255
0.05872074 0.079343   0.19063154 255 0 255
0.04556845 0.07928731 0.19025232 255 0 255
-0.00493948  0.07946448  0.18935203 255 0 255
0.04996902 0.08552249 0.18951124 255 0 255
0.06148219 0.07936797 0.19182799 255 0 255
0.0453954  0.07931846 0.19145512 255 0 255
0.052553   0.0849749  0.19077285 255 0 255
0.05064326 0.08539631 0.19000303 255 0 255
0.06298979 0.07906306 0.19140761 255 0 255
0.04529909 0.07901553 0.1911092  255 0 255
0.05390981 0.08451687 0.19023469 255 0 255
0.05064326 0.08539631 0.19000303 255 0 255
0.06378642 0.07867471 0.19064194 255 0 255
0.04520258 0.07863762 0.19044322 255 0 255
0.05457407 0.08416731 0.1893299  255 0 255
0.05064326 0.08539631 0.19000303 255 0 255
0.06419778 0.07829682 0.18990575 255 0 255
0.0450926  0.07827919 0.18981427 255 0 255
0.05486322 0.08390813 0.18847335 255 0 255
0.05472002 0.08405545 0.18896837 255 0 255
0.05064326 0.08539631 0.19000303 255 0 255
0.04497128 0.07796781 0.18929861 255 0 255
0.06436971 0.0779616  0.18928142 255 0 255
0.05486322 0.08390813 0.18847335 255 0 255
0.05472002 0.08405545 0.18896837 255 0 255
0.05064326 0.08539631 0.19000303 255 0 255
0.04484394 0.07769434 0.18888775 255 0 255
0.06437094 0.07766542 0.18876418 255 0 255
0.05486322 0.08390813 0.18847335 255 0 255
0.05472002 0.08405545 0.18896837 255 0 255
0.05064326 0.08539631 0.19000303 255 0 255
0.04471548 0.07743982 0.18856313 255 0 255
0.06424955 0.07738621 0.18833959 255 0 255
0.05486322 0.08390813 0.18847335 255 0 255
0.05472002 0.08405545 0.18896837 255 0 255
0.05064326 0.08539631 0.19000303 255 0 255
0.04458938 0.07719241 0.18831878 255 0 255
0.05486322 0.08390813 0.18847335 255 0 255
0.05472002 0.08405545 0.18896837 255 0 255
0.05064326 0.08539631 0.19000303 255 0 255
0.04446936 0.07696079 0.18818236 255 0 255
0.05486322 0.08390813 0.18847335 255 0 255
0.05472002 0.08405545 0.18896837 255 0 255
0.05064326 0.08539631 0.19000303 255 0 255
0.04437094 0.07681036 0.18827741 255 0 255
0.05486322 0.08390813 0.18847335 255 0 255
0.05472002 0.08405545 0.18896837 255 0 255
0.05064326 0.08539631 0.19000303 255 0 255
0.04428228 0.07667197 0.18844795 255 0 255
0.05486322 0.08390813 0.18847335 255 0 255
0.05472002 0.08405545 0.18896837 255 0 255
0.05064326 0.08539631 0.19000303 255 0 255
0.04418604 0.07646998 0.18852004 255 0 255
0.05486322 0.08390813 0.18847335 255 0 255
0.05472002 0.08405545 0.18896837 255 0 255
0.05064326 0.08539631 0.19000303 255 0 255
0.04408893 0.07625698 0.1885735  255 0 255
0.05486322 0.08390813 0.18847335 255 0 255
0.05472002 0.08405545 0.18896837 255 0 255
0.05064326 0.08539631 0.19000303 255 0 255
0.04399556 0.0760617  0.1886393  255 0 255
0.05486322 0.08390813 0.18847335 255 0 255
0.05472002 0.08405545 0.18896837 255 0 255
0.05064326 0.08539631 0.19000303 255 0 255
0.04390959 0.07590245 0.18872717 255 0 255
0.05486322 0.08390813 0.18847335 255 0 255
0.05472002 0.08405545 0.18896837 255 0 255
0.05064326 0.08539631 0.19000303 255 0 255
0.04383112 0.07577587 0.18881296 255 0 255
0.05486322 0.08390813 0.18847335 255 0 255
0.05472002 0.08405545 0.18896837 255 0 255
0.05064326 0.08539631 0.19000303 255 0 255
0.04376055 0.07567844 0.18887949 255 0 255
0.05486322 0.08390813 0.18847335 255 0 255
0.05472002 0.08405545 0.18896837 255 0 255
0.05064326 0.08539631 0.19000303 255 0 255
0.04369955 0.07561254 0.18892278 255 0 255
0.05486322 0.08390813 0.18847335 255 0 255
0.05472002 0.08405545 0.18896837 255 0 255
0.05064326 0.08539631 0.19000303 255 0 255
0.04365    0.0755819  0.18894352 255 0 255
0.05486322 0.08390813 0.18847335 255 0 255
0.05472002 0.08405545 0.18896837 255 0 255
0.05064326 0.08539631 0.19000303 255 0 255
0.04361278 0.07558827 0.18894318 255 0 255
0.05486322 0.08390813 0.18847335 255 0 255
0.05472002 0.08405545 0.18896837 255 0 255
0.05064326 0.08539631 0.19000303 255 0 255
0.04358727 0.07562927 0.18892329 255 0 255
0.05486322 0.08390813 0.18847335 255 0 255
0.05472002 0.08405545 0.18896837 255 0 255
0.05064326 0.08539631 0.19000303 255 0 255
0.04357144 0.07569776 0.18888585 255 0 255
0.05472002 0.08405545 0.18896837 255 0 255
0.05064326 0.08539631 0.19000303 255 0 255
0.04356267 0.07578337 0.18883385 255 0 255
-0.00478376  0.07921553  0.17998503 255 0 255
0.05064326 0.08539631 0.19000303 255 0 255
0.04355524 0.07582569 0.18878029 255 0 255
-0.00480274  0.07921587  0.18002186 255 0 255
0.05064326 0.08539631 0.19000303 255 0 255
0.04354993 0.07583424 0.18874389 255 0 255
-0.00481094  0.07921635  0.18003779 255 0 255
0.05064326 0.08539631 0.19000303 255 0 255
0.04354803 0.07583231 0.18871991 255 0 255
-0.00481064  0.07921714  0.1800373  255 0 255
0.05064326 0.08539631 0.19000303 255 0 255
0.04354896 0.07582881 0.1887046  255 0 255
-0.00480593  0.07921789  0.18002824 255 0 255
0.05064326 0.08539631 0.19000303 255 0 255
0.04355142 0.07582674 0.18869518 255 0 255
-0.00480047  0.07921825  0.18001769 255 0 255
0.05064326 0.08539631 0.19000303 255 0 255
0.04355417 0.07582617 0.18868845 255 0 255
-0.00479678  0.07921808  0.1800105  255 0 255
0.05064326 0.08539631 0.19000303 255 0 255
0.04355639 0.07582672 0.18868253 255 0 255
-0.00479633  0.07921739  0.18000954 255 0 255
0.05064326 0.08539631 0.19000303 255 0 255
0.04355783 0.07582801 0.1886767  255 0 255
-0.00480012  0.07921713  0.18001687 255 0 255
0.05064326 0.08539631 0.19000303 255 0 255
0.04355859 0.07582968 0.18867104 255 0 255
-0.00480747  0.07921823  0.18003131 255 0 255
0.05064326 0.08539631 0.19000303 255 0 255
0.04355848 0.07583174 0.18866596 255 0 255
-0.00481643  0.07922001  0.18004896 255 0 255
0.05064326 0.08539631 0.19000303 255 0 255
0.04355716 0.07583422 0.18866169 255 0 255
-0.00482448  0.07922147  0.18006478 255 0 255
0.05064326 0.08539631 0.19000303 255 0 255
0.04355459 0.0758372  0.1886587  255 0 255
-0.00483017  0.07922226  0.18007589 255 0 255
0.05064326 0.08539631 0.19000303 255 0 255
0.043551   0.07584075 0.18865757 255 0 255
-0.00483282  0.07922232  0.18008097 255 0 255
0.05064326 0.08539631 0.19000303 255 0 255
0.04354654 0.07584499 0.18865872 255 0 255
-0.00483176  0.07922127  0.18007865 255 0 255
0.05064326 0.08539631 0.19000303 255 0 255
0.04354117 0.07585    0.18866214 255 0 255
-0.00482956  0.07918432  0.18006869 255 0 255
0.05064326 0.08539631 0.19000303 255 0 255
0.04353367 0.07586785 0.18866657 255 0 255
-0.00486164  0.07883338  0.1800634  255 0 255
0.05064326 0.08539631 0.19000303 255 0 255
0.04352411 0.07588679 0.18866485 255 0 255
-0.00491871  0.07840943  0.18006651 255 0 255
0.05064326 0.08539631 0.19000303 255 0 255
0.04351351 0.07590404 0.18865779 255 0 255
-0.0049942   0.07796239  0.18006125 255 0 255
0.05064326 0.08539631 0.19000303 255 0 255
0.04350374 0.07591795 0.18865137 255 0 255
-0.00508187  0.07752927  0.18004495 255 0 255
0.05064326 0.08539631 0.19000303 255 0 255
0.04349422 0.07593316 0.18864819 255 0 255
-0.00517904  0.07711153  0.18001816 255 0 255
0.05064326 0.08539631 0.19000303 255 0 255
0.04348628 0.07594471 0.18864841 255 0 255
0.05064326 0.08539631 0.19000303 255 0 255
0.04347924 0.0759636  0.18864502 255 0 255
0.05064326 0.08539631 0.19000303 255 0 255
0.04347143 0.07598318 0.18863277 255 0 255
0.05064326 0.08539631 0.19000303 255 0 255
0.04346314 0.07600127 0.18861823 255 0 255
-0.00492371  0.08150867  0.18009662 255 0 255
0.05064326 0.08539631 0.19000303 255 0 255
0.04345284 0.07591784 0.18866032 255 0 255
-0.00495677  0.08135669  0.18020205 255 0 255
0.04343504 0.0755901  0.1888024  255 0 255
-0.0049679   0.08122122  0.18025933 255 0 255
0.04341894 0.07528684 0.18894493 255 0 255
-0.00497392  0.08109092  0.180303   255 0 255
0.04340325 0.07499945 0.18908685 255 0 255
-0.00498082  0.08096372  0.18034399 255 0 255
0.04338687 0.07472597 0.1892272  255 0 255
-0.00497639  0.08083221  0.18036215 255 0 255
0.04337021 0.07445719 0.18937146 255 0 255
-0.00496408  0.0806934   0.18036321 255 0 255
0.04335334 0.07418344 0.18952514 255 0 255
-0.0049517   0.08054755  0.1803616  255 0 255
0.04333618 0.07389828 0.18969292 255 0 255
-0.00493743  0.0803912   0.18045689 255 0 255
0.04331922 0.07359351 0.18987947 255 0 255
-0.00492656  0.08022473  0.18066992 255 0 255
0.0433039  0.07327417 0.19008736 255 0 255
-0.00491597  0.08017323  0.18041409 255 0 255
0.04329149 0.07293957 0.19032072 255 0 255
-0.0049014   0.08009673  0.18029315 255 0 255
0.04328295 0.07258727 0.19058338 255 0 255
-0.00488237  0.07999819  0.18025553 255 0 255
0.04327916 0.07221167 0.19088035 255 0 255
-0.00486286  0.07989554  0.1802152  255 0 255
0.04328052 0.07180242 0.1912182  255 0 255
-0.0048429   0.07978164  0.18017132 255 0 255
0.04328757 0.07134632 0.1916099  255 0 255
-0.00481577  0.07965238  0.18010952 255 0 255
0.04330194 0.07082804 0.19207603 255 0 255
-0.00477295  0.07950362  0.18001231 255 0 255
0.04339913 0.07016549 0.19297949 255 0 255
-0.00493136  0.07935808  0.18030254 255 0 255
0.0487187  0.07625339 0.18850859 255 0 255
0.04349106 0.06959939 0.19372222 255 0 255
-0.00505413  0.07916427  0.18051068 255 0 255
0.04848969 0.07594064 0.1889023  255 0 255
-0.00509635  0.07895101  0.18055055 255 0 255
0.0484031  0.07566402 0.18911457 255 0 255
-0.00510468  0.07872564  0.18051353 255 0 255
0.04837615 0.07545745 0.18922059 255 0 255
-0.00510971  0.07847871  0.18045256 255 0 255
0.04835568 0.07529776 0.18925684 255 0 255
-0.00512667  0.07821127  0.18039438 255 0 255
0.04831348 0.07515694 0.18926474 255 0 255
-0.00514657  0.07791445  0.18031689 255 0 255
0.0482754  0.07501397 0.18927387 255 0 255
-0.00516874  0.07761211  0.18022204 255 0 255
0.04823667 0.07485307 0.18930887 255 0 255
-0.00519818  0.07730517  0.18011975 255 0 255
0.04818668 0.07466373 0.18938606 255 0 255
-0.0052396   0.0769674   0.18000457 255 0 255
0.04813194 0.07444149 0.18950282 255 0 255
0.04802926 0.07417257 0.18965944 255 0 255
0.04778762 0.07383409 0.18986078 255 0 255
0.0475139  0.07344093 0.19010426 255 0 255
0.04731971 0.0730109  0.19038772 255 0 255
0.04730222 0.07256382 0.19070328 255 0 255
0.04753088 0.07212146 0.19104202 255 0 255
-0.02149902  0.07962392  0.2021297  255 0 255
-0.01950931  0.07728169  0.2105687  255 0 255
-0.02306349  0.07900822  0.21084141 255 0 255
-0.01136177  0.0884396   0.21855045 255 0 255
-0.01979488  0.08003771  0.1996943  255 0 255
-0.01834112  0.0788295   0.20703529 255 0 255
-0.02211383  0.08010291  0.20044263 255 0 255
-0.02396232  0.08030975  0.20176629 255 0 255
-0.00735662  0.08286352  0.21606982 255 0 255
-0.01814011  0.08473264  0.201395   255 0 255
-0.01535281  0.07918911  0.20178208 255 0 255
-0.02493516  0.08209517  0.19016719 255 0 255
-0.02113825  0.08046798  0.19834827 255 0 255
-0.02227858  0.08149677  0.18775635 255 0 255
-0.00662562  0.08108727  0.20178096 255 0 255
-0.00717484  0.08219564  0.21598076 255 0 255
-0.00940137  0.08306389  0.20075322 255 0 255
-0.01361319  0.07878084  0.1963568  255 0 255
-0.02118656  0.08089548  0.18369399 255 0 255
-0.02188564  0.08080819  0.18608171 255 0 255
-0.00495177  0.08019754  0.20033594 255 0 255
-0.00710255  0.08180695  0.2159126  255 0 255
-0.00647594  0.0817579   0.20036341 255 0 255
-0.01289687  0.07774955  0.19393232 255 0 255
-0.01942204  0.0783745   0.18018808 255 0 255
-0.02092102  0.07862804  0.18427444 255 0 255
-0.00418235  0.08006458  0.20008959 255 0 255
-0.0068842   0.0816493   0.21624937 255 0 255
-0.00322811  0.08022343  0.20001863 255 0 255
-0.01215661  0.07648234  0.19110118 255 0 255
-0.01753047  0.07532066  0.18273701 255 0 255
-0.02092102  0.07862804  0.18427444 255 0 255
0.0414643  0.08619322 0.20740858 255 0 255
-0.0031298   0.08000897  0.19999196 255 0 255
-0.00632603  0.07953003  0.21639421 255 0 255
0.05789174 0.08883874 0.20793075 255 0 255
-0.00084033  0.07897382  0.19981255 255 0 255
-0.01171705  0.07542698  0.18893211 255 0 255
-0.01552985  0.07246196  0.18205123 255 0 255
0.04198169 0.08573578 0.20681253 255 0 255
0.05782168 0.08736235 0.20876339 255 0 255
-0.00280109  0.08001166  0.19999473 255 0 255
-0.00608821  0.07967855  0.21581564 255 0 255
0.05840662 0.08816476 0.20697058 255 0 255
0.07679682 0.08860728 0.20730724 255 0 255
-0.00061839  0.07829814  0.19972858 255 0 255
-0.01196275  0.0747995   0.18816757 255 0 255
-0.01550818  0.07126577  0.18230471 255 0 255
0.04215418 0.08572064 0.20678507 255 0 255
0.05775758 0.08724632 0.20861297 255 0 255
-0.00294558  0.08004028  0.20003148 255 0 255
-0.00604503  0.07981735  0.21656027 255 0 255
0.05854995 0.08800527 0.20692132 255 0 255
0.07689714 0.08846177 0.20728679 255 0 255
-0.00142899  0.07807771  0.19972073 255 0 255
-0.01243131  0.07454771  0.1881676  255 0 255
-0.01605968  0.07154678  0.18282549 255 0 255
0.04222519 0.08580578 0.20688735 255 0 255
0.05754457 0.08724996 0.20861828 255 0 255
-0.00322323  0.08006688  0.20006134 255 0 255
-0.00606285  0.07991545  0.2174289  255 0 255
0.05859993 0.08798868 0.2071396  255 0 255
0.07672624 0.08855714 0.20761818 255 0 255
-0.00234809  0.07801617  0.19973068 255 0 255
-0.01286534  0.07444986  0.18833409 255 0 255
-0.01659834  0.07183176  0.1832644  255 0 255
0.04228844 0.0858404  0.2069297  255 0 255
0.05739358 0.08722688 0.20859203 255 0 255
-0.00342129  0.08008278  0.20007649 255 0 255
-0.00608498  0.080539    0.21744467 255 0 255
0.05870499 0.08794428 0.20733405 255 0 255
0.07660784 0.08861878 0.20792931 255 0 255
-0.00293712  0.07796887  0.19973769 255 0 255
-0.01315616  0.07438304  0.18840785 255 0 255
-0.01692155  0.07201076  0.18350876 255 0 255
0.04235259 0.08582732 0.20691472 255 0 255
0.05737614 0.08717896 0.20853566 255 0 255
-0.0034734   0.08009144  0.20008339 255 0 255
-0.00608431  0.08081249  0.21749325 255 0 255
0.05887345 0.08787768 0.20743578 255 0 255
0.07663424 0.08861488 0.2081096  255 0 255
-0.00317453  0.07793201  0.19974365 255 0 255
-0.01330684  0.07433224  0.18840506 255 0 255
-0.01705518  0.07208946  0.18361742 255 0 255
0.04241435 0.08578963 0.20687014 255 0 255
0.05751104 0.08712654 0.20847366 255 0 255
-0.00336545  0.08009661  0.20008704 255 0 255
-0.00604294  0.08089403  0.21759104 255 0 255
0.05913175 0.0878104  0.20747378 255 0 255
0.07681892 0.08857873 0.20819287 255 0 255
-0.00314117  0.07790278  0.19975011 255 0 255
-0.01335129  0.07428883  0.18834961 255 0 255
-0.01703322  0.07209935  0.18366075 255 0 255
0.04246994 0.08574558 0.20681784 255 0 255
0.05776225 0.08708228 0.20842127 255 0 255
-0.00313631  0.08010047  0.2000898  255 0 255
-0.00597181  0.08089586  0.21772862 255 0 255
0.05946761 0.08775444 0.20748719 255 0 255
0.07711603 0.08853857 0.20823329 255 0 255
-0.0029405   0.07787985  0.1997577  255 0 255
-0.01332964  0.07424937  0.18826407 255 0 255
-0.01690451  0.07207161  0.18367946 255 0 255
0.04251651 0.0857074  0.20677264 255 0 255
0.05807264 0.08705219 0.20838597 255 0 255
-0.00284469  0.08010409  0.20009265 255 0 255
-0.00588933  0.0808891   0.21788641 255 0 255
0.05984474 0.08771443 0.20750452 255 0 255
0.07746171 0.08851054 0.20827221 255 0 255
-0.00266685  0.07786155  0.19976676 255 0 255
-0.01327749  0.07421136  0.18816371 255 0 255
-0.01671976  0.07203185  0.1836914  255 0 255
0.0425541  0.08567868 0.20673896 255 0 255
0.05839705 0.08703525 0.20836665 255 0 255
-0.00253657  0.08010772  0.20009574 255 0 255
-0.00580744  0.08089936  0.21804718 255 0 255
0.06022189 0.08768915 0.20752807 255 0 255
0.07781149 0.08849471 0.20831359 255 0 255
-0.00238318  0.07784911  0.19977624 255 0 255
-0.0132161   0.07417811  0.18806636 255 0 255
-0.01652032  0.07199399  0.18370598 255 0 255
0.0425849  0.08565753 0.20671441 255 0 255
0.05870558 0.08702632 0.20835701 255 0 255
-0.00224238  0.08011122  0.20009882 255 0 255
-0.00573215  0.08092518  0.21819888 255 0 255
0.06057258 0.08767303 0.20755338 255 0 255
0.07813926 0.08848573 0.20835334 255 0 255
-0.00211891  0.077841    0.19978531 255 0 255
-0.01315589  0.0741498   0.18797815 255 0 255
-0.01632907  0.0719644   0.18372181 255 0 255
0.04261108 0.08564128 0.20669559 255 0 255
0.05897668 0.08702042 0.20835083 255 0 255
-0.00198406  0.08011437  0.20010163 255 0 255
-0.00566725  0.08095966  0.21833255 255 0 255
0.06087808 0.08766066 0.2075756  255 0 255
0.07842712 0.08847837 0.20838679 255 0 255
-0.00189061  0.07783494  0.19979347 255 0 255
-0.01310311  0.07412537  0.18790096 255 0 255
-0.01616026  0.07194204  0.18373594 255 0 255
0.04263378 0.0856284  0.20668058 255 0 255
0.0591958  0.0870146  0.20834448 255 0 255
-0.00177635  0.08011707  0.20010403 255 0 255
-0.00561539  0.08099873  0.21844209 255 0 255
0.06112578 0.08764889 0.20759217 255 0 255
0.0786625  0.08846976 0.20841173 255 0 255
-0.00170945  0.0778293   0.19980047 255 0 255
-0.01306212  0.07410387  0.18783602 255 0 255
-0.01602387  0.07192587  0.18374627 255 0 255
0.04265375 0.08561806 0.20666837 255 0 255
0.05935787 0.08700751 0.20833627 255 0 255
-0.00162449  0.0801193   0.20010598 255 0 255
-0.00557739  0.08104084  0.21852549 255 0 255
0.06131331 0.08763603 0.20760356 255 0 255
0.07884106 0.08845913 0.20842983 255 0 255
-0.00157768  0.07782217  0.1998065  255 0 255
-0.01303475  0.07408315  0.18778086 255 0 255
-0.01592055  0.07191317  0.18375089 255 0 255
0.04267171 0.08560938 0.20665792 255 0 255
0.05946696 0.08699846 0.20832541 255 0 255
-0.00152464  0.08012108  0.20010751 255 0 255
-0.00555235  0.08108384  0.21858486 255 0 255
0.06144641 0.08762119 0.2076104  255 0 255
0.07896729 0.08844614 0.20844242 255 0 255
-0.00149003  0.07781256  0.19981179 255 0 255
-0.01302002  0.07406183  0.18773243 255 0 255
-0.01584778  0.07190144  0.18374916 255 0 255
0.04268815 0.08560177 0.20664852 255 0 255
0.05953342 0.08698763 0.20831214 255 0 255
-0.00146661  0.08012249  0.20010869 255 0 255
-0.00553752  0.08112612  0.21862474 255 0 255
0.06153644 0.08760448 0.20761396 255 0 255
0.07905136 0.08843131 0.20845139 255 0 255
-0.00143621  0.0778003   0.19981663 255 0 255
-0.01301525  0.07403915  0.18768789 255 0 255
-0.01579741  0.07188943  0.18374114 255 0 255
0.04270339 0.08559478 0.20663971 255 0 255
0.05957003 0.08697558 0.20829719 255 0 255
-0.00143772  0.08012361  0.20010959 255 0 255
-0.0055297   0.08116644  0.21865077 255 0 255
0.06159668 0.08758645 0.20761559 255 0 255
0.07910568 0.08841545 0.20845851 255 0 255
-0.00140463  0.07778576  0.19982123 255 0 255
-0.01301711  0.07401496  0.18764488 255 0 255
-0.01576247  0.07187659  0.1837275  255 0 255
0.04271776 0.08558809 0.20663114 255 0 255
0.05958889 0.08696285 0.20828129 255 0 255
-0.00142606  0.08012451  0.20011032 255 0 255
-0.00552583  0.08120421  0.21866824 255 0 255
0.06163936 0.08756771 0.20761636 255 0 255
0.07914202 0.08839924 0.208465   255 0 255
-0.00138488  0.07776947  0.19982578 255 0 255
-0.01302254  0.07398937  0.18760141 255 0 255
-0.01573529  0.07186252  0.18370978 255 0 255
0.04273157 0.08558141 0.2066225  255 0 255
0.05959943 0.08694982 0.20826491 255 0 255
-0.00142231  0.08012528  0.20011093 255 0 255
-0.00552401  0.08123887  0.21868167 255 0 255
0.06167391 0.08754862 0.20761678 255 0 255
0.07916977 0.08838299 0.20847138 255 0 255
-0.0013693   0.07775201  0.19983036 255 0 255
-0.01302916  0.0739627   0.18755662 255 0 255
-0.01571145  0.07184713  0.18368902 255 0 255
0.04274485 0.08557491 0.20661403 255 0 255
0.05960774 0.08693707 0.20824881 255 0 255
-0.00142051  0.08012597  0.20011149 255 0 255
-0.00552269  0.08127174  0.21869369 255 0 255
0.06170628 0.08752983 0.20761769 255 0 255
0.07919465 0.08836733 0.20847854 255 0 255
-0.0013536   0.07773383  0.19983506 255 0 255
-0.0130357   0.07393514  0.18751013 255 0 255
-0.01568757  0.07183094  0.1836665  255 0 255
0.04275765 0.0855687  0.2066059  255 0 255
0.05961707 0.08692492 0.20823343 255 0 255
-0.00141747  0.08012664  0.20011203 255 0 255
-0.00552126  0.08130395  0.21870593 255 0 255
0.06173954 0.0875117  0.2076194  255 0 255
0.07921984 0.08835252 0.20848672 255 0 255
-0.0013359   0.07771529  0.19983993 255 0 255
-0.01304133  0.07390704  0.18746201 255 0 255
-0.01566244  0.07181422  0.1836429  255 0 255
0.04277023 0.08556261 0.20659793 255 0 255
0.05962892 0.08691319 0.20821857 255 0 255
-0.00141182  0.0801273   0.20011258 255 0 255
-0.0055194   0.08133579  0.21871918 255 0 255
0.05996574 0.0805293  0.21222498 255 0 255
0.0617749  0.08749404 0.20762135 255 0 255
0.07924719 0.08833813 0.20849506 255 0 255
-0.00131547  0.0776967   0.19984494 255 0 255
-0.01304567  0.07387875  0.18741258 255 0 255
-0.01563531  0.0717971   0.18361878 255 0 255
0.04278245 0.08555696 0.2065905  255 0 255
0.0596433  0.08690221 0.20820463 255 0 255
-0.00140357  0.08012797  0.20011315 255 0 255
-0.0055174   0.0813686   0.21873365 255 0 255
0.05998527 0.08048806 0.2122187  255 0 255
0.06181225 0.08747724 0.20762396 255 0 255
0.07927646 0.08832456 0.20850399 255 0 255
-0.00129314  0.07767807  0.19985012 255 0 255
-0.01304944  0.0738501   0.18736219 255 0 255
-0.01560656  0.07177981  0.18359462 255 0 255
0.04279419 0.08555205 0.20658399 255 0 255
0.05965967 0.08689224 0.20819194 255 0 255
-0.00139326  0.08012868  0.20011375 255 0 255
-0.00551527  0.08140386  0.21874902 255 0 255
0.06000639 0.08044782 0.21221399 255 0 255
0.06185086 0.0874616  0.2076274  255 0 255
0.07930698 0.08831202 0.20851364 255 0 255
-0.00127015  0.07765949  0.1998555  255 0 255
-0.01305307  0.07382117  0.18731126 255 0 255
-0.01557699  0.07176279  0.18357065 255 0 255
0.0428047  0.08554989 0.20658092 255 0 255
0.05967687 0.08688522 0.20818297 255 0 255
-0.00138213  0.08012956  0.20011453 255 0 255
-0.00551446  0.08145107  0.21876529 255 0 255
0.06002725 0.08040926 0.21221457 255 0 255
0.06188856 0.08744916 0.20763363 255 0 255
0.07933651 0.08830238 0.20852575 255 0 255
-0.00125353  0.07764153  0.19986109 255 0 255
-0.01305854  0.0737925   0.18726203 255 0 255
-0.01554798  0.0717476   0.18354981 255 0 255
0.04280448 0.08557529 0.20661223 255 0 255
0.05968435 0.08690539 0.20820831 255 0 255
-0.00138171  0.08013233  0.20011724 255 0 255
-0.00553541  0.08162471  0.21878588 255 0 255
0.06190317 0.0874653  0.20766754 255 0 255
0.07934089 0.08831897 0.20856303 255 0 255
-0.0013268   0.07763135  0.19986708 255 0 255
-0.0130899   0.07377112  0.1872417  255 0 255
-0.0155368   0.07175203  0.18356797 255 0 255
-0.01554212  0.07174712  0.18355302 255 0 255
0.04280423 0.08560372 0.20664715 255 0 255
0.05969384 0.08692812 0.20823673 255 0 255
-0.00138     0.08013535  0.2001202  255 0 255
-0.00552825  0.0816412   0.21880523 255 0 255
0.06191626 0.08748409 0.2077014  255 0 255
0.07934759 0.08833641 0.20859802 255 0 255
-0.00141058  0.0776216   0.1998732  255 0 255
-0.0131242   0.07375002  0.18722326 255 0 255
-0.01552526  0.07175869  0.18359042 255 0 255
-0.01554212  0.07174712  0.18355302 255 0 255
0.04281102 0.08561816 0.2066644  255 0 255
0.05971048 0.08693626 0.2082465  255 0 255
-0.00137153  0.08013748  0.20012226 255 0 255
-0.00551646  0.08163517  0.21882563 255 0 255
0.0619408  0.08748739 0.20771691 255 0 255
0.07937218 0.08833754 0.20861334 255 0 255
-0.00145126  0.07760691  0.19987939 255 0 255
-0.01314785  0.07372341  0.18718734 255 0 255
-0.01550319  0.07175472  0.18359294 255 0 255
-0.01554212  0.07174712  0.18355302 255 0 255
0.04282375 0.08562045 0.20666632 255 0 255
0.05973022 0.08693156 0.20823991 255 0 255
-0.00136026  0.08013883  0.20012353 255 0 255
-0.00550455  0.08162824  0.21884596 255 0 255
0.06197311 0.08747702 0.20771727 255 0 255
0.07940886 0.08832476 0.20861306 255 0 255
-0.00145634  0.07758788  0.19988578 255 0 255
-0.01316161  0.07369213  0.18713724 255 0 255
-0.0154742   0.07174174  0.1835777  255 0 255
-0.01554212  0.07174712  0.18355302 255 0 255
0.04284002 0.08561532 0.20665959 255 0 255
0.05975135 0.08691882 0.20822398 255 0 255
-0.00134787  0.08013973  0.20012434 255 0 255
-0.00549258  0.08162071  0.2188662  255 0 255
0.06201027 0.08745813 0.20770982 255 0 255
0.07945212 0.08830354 0.20860516 255 0 255
-0.00143884  0.0775663   0.1998926  255 0 255
-0.01316934  0.07365752  0.18707763 255 0 255
-0.01544083  0.07172259  0.18355023 255 0 255
-0.01554212  0.07174712  0.18355302 255 0 255
0.04285996 0.08560191 0.2066435  255 0 255
0.05977627 0.08689738 0.20819831 255 0 255
-0.00133192  0.08014016  0.20012465 255 0 255
-0.00548013  0.08161267  0.2188872  255 0 255
0.06205546 0.08743003 0.20769491 255 0 255
0.0795043  0.08827353 0.20859049 255 0 255
-0.00139307  0.07754207  0.19990004 255 0 255
-0.01316901  0.0736191   0.18700607 255 0 255
-0.01540187  0.07169698  0.18350947 255 0 255
-0.01554212  0.07174712  0.18355302 255 0 255
0.04288025 0.08558702 0.20662584 255 0 255
0.0598029  0.08687459 0.20817127 255 0 255
-0.00131421  0.08014049  0.20012484 255 0 255
-0.00546745  0.08160493  0.21890877 255 0 255
0.06210444 0.08740052 0.20768057 255 0 255
0.07955826 0.08824292 0.20857761 255 0 255
-0.00133946  0.07751747  0.19990797 255 0 255
-0.01316697  0.07357939  0.18693106 255 0 255
-0.01536178  0.07166923  0.18346507 255 0 255
-0.01554212  0.07174712  0.18355302 255 0 255
0.04289687 0.08558028 0.2066184  255 0 255
0.05982864 0.08686033 0.20815502 255 0 255
-0.00129736  0.08014133  0.20012548 255 0 255
-0.00545446  0.08159792  0.21893118 255 0 255
0.06215079 0.08737996 0.2076776  255 0 255
0.07960532 0.08822189 0.20857718 255 0 255
-0.00130699  0.07749488  0.19991638 255 0 255
-0.01317175  0.0735408   0.18686212 255 0 255
-0.01532665  0.0716465   0.18343011 255 0 255
-0.01554212  0.07174712  0.18355302 255 0 255
0.04291093 0.08557949 0.20661842 255 0 255
0.05985559 0.08685238 0.20814674 255 0 255
-0.00127933  0.08014251  0.20012645 255 0 255
-0.00544082  0.08159137  0.21895502 255 0 255
0.06219682 0.087366   0.20768276 255 0 255
0.07964934 0.08820776 0.20858546 255 0 255
-0.00128891  0.07747366  0.19992514 255 0 255
-0.01318106  0.07350299  0.18679737 255 0 255
-0.01529349  0.07162698  0.18340181 255 0 255
-0.01554212  0.07174712  0.18355302 255 0 255
0.04292545 0.0855777  0.20661726 255 0 255
0.05988527 0.08684352 0.2081374  255 0 255
-0.0012586   0.08014361  0.20012735 255 0 255
-0.00542661  0.08158473  0.21897993 255 0 255
0.06224602 0.08735105 0.20768709 255 0 255
0.07969669 0.08819265 0.20859295 255 0 255
-0.00126659  0.07745246  0.19993396 255 0 255
-0.0131895   0.07346496  0.18673102 255 0 255
-0.01525966  0.07160754  0.18337231 255 0 255
-0.01554212  0.07174712  0.18355302 255 0 255
0.04294145 0.08557248 0.20661186 255 0 255
0.05991559 0.08683105 0.20812356 255 0 255
-0.00123726  0.08014447  0.200128   255 0 255
-0.00541248  0.0815778   0.21900462 255 0 255
0.06229709 0.08733228 0.20768728 255 0 255
0.07974698 0.08817373 0.20859623 255 0 255
-0.00123551  0.07743075  0.19994277 255 0 255
-0.01318448  0.07342923  0.18666338 255 0 255
-0.01522546  0.07158594  0.18333921 255 0 255
-0.01554212  0.07174712  0.18355302 255 0 255
0.04296202 0.08556105 0.20659906 255 0 255
0.05994857 0.08681087 0.20810052 255 0 255
-0.00121447  0.080145    0.20012847 255 0 255
-0.00539714  0.08156833  0.21903084 255 0 255
0.06235301 0.08730458 0.20767795 255 0 255
0.07980729 0.08814465 0.20858837 255 0 255
-0.0011932   0.07740595  0.19995179 255 0 255
-0.01319277  0.07338581  0.18658614 255 0 255
-0.01518637  0.07156123  0.18329885 255 0 255
-0.01554212  0.07174712  0.18355302 255 0 255
0.04298556 0.0855459  0.20658173 255 0 255
0.05997481 0.08678526 0.20807091 255 0 255
-0.00119937  0.08014533  0.20012876 255 0 255
-0.00538274  0.08155717  0.2190547  255 0 255
0.06240552 0.08727053 0.2076637  255 0 255
0.07986552 0.08810918 0.20857568 255 0 255
-0.00115227  0.07737961  0.19996104 255 0 255
-0.01319466  0.07334245  0.1865065  255 0 255
-0.0151508   0.07153462  0.18325442 255 0 255
-0.01554212  0.07174712  0.18355302 255 0 255
0.04300896 0.0855311  0.20656474 255 0 255
0.0599875  0.08675899 0.20804039 255 0 255
-0.0011979   0.08014562  0.20012894 255 0 255
-0.00537124  0.08154582  0.21907292 255 0 255
0.06244732 0.0872356  0.20765124 255 0 255
0.07990999 0.08807397 0.20856655 255 0 255
-0.00112446  0.07735338  0.1999705  255 0 255
-0.01320193  0.073299    0.18642911 255 0 255
-0.01512526  0.07150866  0.18321033 255 0 255
-0.01554212  0.07174712  0.18355302 255 0 255
0.04303103 0.08551811 0.20654988 255 0 255
0.05998551 0.08673392 0.20801125 255 0 255
-0.00121084  0.08014593  0.20012904 255 0 255
-0.00536312  0.08153476  0.21908472 255 0 255
0.06039661 0.07956485 0.2122314  255 0 255
0.0624763  0.08720194 0.20764246 255 0 255
0.07993785 0.0880413  0.20856297 255 0 255
-0.00111238  0.07732724  0.19998019 255 0 255
-0.01321149  0.07325645  0.18635522 255 0 255
-0.01511029  0.07148348  0.18316762 255 0 255
0.04304868 0.08551075 0.20654174 255 0 255
0.05996754 0.08671505 0.20798952 255 0 255
-0.00123849  0.08014643  0.20012917 255 0 255
-0.00535927  0.08152577  0.21908899 255 0 255
0.06038574 0.07950794 0.21221381 255 0 255
0.06248856 0.08717554 0.20764248 255 0 255
0.07994304 0.0880175  0.20857049 255 0 255
-0.00112084  0.07730292  0.19999011 255 0 255
-0.01323237  0.0732146   0.18628787 255 0 255
-0.01510836  0.07146074  0.18312951 255 0 255
0.04306193 0.08550861 0.20653988 255 0 255
0.0599398  0.08670252 0.20797539 255 0 255
-0.00127448  0.08014708  0.20012934 255 0 255
-0.00535846  0.08151877  0.21908805 255 0 255
0.06036364 0.07946721 0.2122031  255 0 255
0.06248904 0.08715656 0.20765023 255 0 255
0.07993192 0.08800226 0.20858724 255 0 255
-0.00114229  0.07727992  0.20000029 255 0 255
-0.01326389  0.07317225  0.18622392 255 0 255
-0.0151142   0.07143991  0.1830946  255 0 255
0.04307259 0.08550921 0.20654118 255 0 255
0.05990835 0.08669365 0.20796551 255 0 255
-0.00131321  0.08014778  0.20012954 255 0 255
-0.00535916  0.08151288  0.21908458 255 0 255
0.06033681 0.0794342  0.21219698 255 0 255
0.06248522 0.08714171 0.20766283 255 0 255
0.07991314 0.08799209 0.20861008 255 0 255
-0.00116499  0.0772558   0.2000113  255 0 255
-0.01329401  0.07312798  0.18615611 255 0 255
-0.01512073  0.07141774  0.18305694 255 0 255
0.04308144 0.08551245 0.20654543 255 0 255
0.05988182 0.0866885  0.2079598  255 0 255
-0.0013464   0.08014852  0.20012988 255 0 255
-0.00535916  0.08150732  0.21908261 255 0 255
0.06031331 0.07940295 0.21219777 255 0 255
0.06248319 0.08713099 0.20767757 255 0 255
0.07989666 0.08798561 0.20863414 255 0 255
-0.00117884  0.07722449  0.20002615 255 0 255
-0.01333102  0.07306932  0.1860634  255 0 255
-0.01512652  0.07138772  0.18300634 255 0 255
0.04308843 0.08551973 0.20655438 255 0 255
0.05986871 0.08668875 0.20796042 255 0 255
-0.00136584  0.08014941  0.20013051 255 0 255
-0.00535625  0.08150181  0.21908632 255 0 255
0.06030079 0.07937327 0.21220904 255 0 255
0.06248805 0.08712637 0.20769372 255 0 255
0.07989094 0.08798341 0.20865662 255 0 255
-0.00117379  0.07718419  0.20004669 255 0 255
-0.0133622   0.07299307  0.18593574 255 0 255
-0.01512395  0.07134626  0.18293629 255 0 255
0.04309384 0.08553311 0.20657043 255 0 255
0.05988179 0.08669679 0.20797014 255 0 255
-0.00135932  0.08015058  0.20013167 255 0 255
-0.005347    0.08149568  0.2191021  255 0 255
0.06250956 0.08713031 0.20771167 255 0 255
0.07990888 0.08798665 0.20867584 255 0 255
-0.00112462  0.07713459  0.20007547 255 0 255
-0.01339643  0.07288847  0.18575425 255 0 255
-0.01509215  0.07128756  0.1828358  255 0 255
-0.0151105   0.07131422  0.18288155 255 0 255
0.04310803 0.08556505 0.20660761 255 0 255
0.0599574  0.08671849 0.20799499 255 0 255
-0.00129896  0.08015268  0.2001351  255 0 255
-0.00531574  0.0814746   0.21915585 255 0 255
0.06258144 0.08714498 0.20773632 255 0 255
0.07999963 0.08799069 0.20868739 255 0 255
-0.0009775   0.07710197  0.20012668 255 0 255
-0.01341201  0.07274284  0.18548738 255 0 255
-0.01499988  0.07119584  0.18267651 255 0 255
-0.0151105   0.07131422  0.18288155 255 0 255
0.04312833 0.08562905 0.20668209 255 0 255
0.06007345 0.08676497 0.20804833 255 0 255
-0.00120827  0.08015609  0.20014089 255 0 255
-0.00526548  0.08143784  0.21924173 255 0 255
0.06268491 0.08718147 0.20778664 255 0 255
0.0801355  0.08800812 0.20871389 255 0 255
-0.00075909  0.07707928  0.20020895 255 0 255
-0.01342001  0.07252642  0.18508414 255 0 255
-0.01485729  0.07105433  0.18242604 255 0 255
-0.0151105   0.07131422  0.18288155 255 0 255
0.04315388 0.08572143 0.20679074 255 0 255
0.0601851  0.08683096 0.20812534 255 0 255
-0.00113061  0.08016006  0.20014769 255 0 255
-0.00520816  0.08139041  0.21933843 255 0 255
0.06277937 0.08723541 0.20785966 255 0 255
0.08027179 0.08803639 0.2087561  255 0 255
-0.00050799  0.07705145  0.20031998 255 0 255
-0.01343491  0.0722192   0.18451168 255 0 255
-0.01466622  0.07084866  0.18205158 255 0 255
-0.0151105   0.07131422  0.18288155 255 0 255
0.04319061 0.08582133 0.20690841 255 0 255
0.06027256 0.08689504 0.20820016 255 0 255
-0.00108436  0.08016306  0.20015362 255 0 255
-0.00515122  0.08133579  0.21943273 255 0 255
0.06284939 0.08728561 0.20792762 255 0 255
0.08039978 0.08805415 0.20878598 255 0 255
-0.00026339  0.07701683  0.20044853 255 0 255
-0.01294221  0.07197362  0.18618964 255 0 255
-0.01444958  0.07058022  0.18154871 255 0 255
-0.0151105   0.07131422  0.18288155 255 0 255
0.04323858 0.08590113 0.2070016  255 0 255
0.06032769 0.08693442 0.20824492 255 0 255
-0.0010722   0.08016409  0.20015689 255 0 255
-0.0051022   0.08128084  0.21951217 255 0 255
0.06289527 0.08731053 0.20796611 255 0 255
0.0805128  0.08804491 0.20878549 255 0 255
-9.93603209e-05  7.69965865e-02  2.00558549e-01 255 0 255
-0.01239705  0.07185907  0.18829261 255 0 255
-0.01426152  0.07032208  0.18105409 255 0 255
-0.0151105   0.07131422  0.18288155 255 0 255
0.04329178 0.08596591 0.20707589 255 0 255
0.06034974 0.08695706 0.20826856 255 0 255
-0.00109259  0.08016371  0.2001579  255 0 255
-0.00506258  0.0812285   0.21957465 255 0 255
0.06291577 0.08731886 0.20798664 255 0 255
0.08060023 0.08802022 0.20876944 255 0 255
-1.03087180e-05  7.69943830e-02  2.00644639e-01 255 0 255
-0.01196807  0.07182232  0.19001558 255 0 255
-0.01410027  0.07010507  0.18139523 255 0 255
-0.0151105   0.07131422  0.18288155 255 0 255
0.04334487 0.08603045 0.20714988 255 0 255
0.06034899 0.0869791  0.20829149 255 0 255
-0.00113498  0.08016263  0.20015758 255 0 255
-0.00503006  0.0811843   0.21962601 255 0 255
0.0629164  0.08732712 0.208009   255 0 255
0.08066339 0.08799682 0.20875763 255 0 255
1.48882521e-05 7.70021606e-02 2.00714850e-01 255 0 255
-0.0116013   0.07183855  0.1915716  255 0 255
-0.01396219  0.06993837  0.18198127 255 0 255
-0.0151105   0.07131422  0.18288155 255 0 255
0.0433969  0.08609982 0.20723002 255 0 255
0.06034134 0.08700637 0.20832117 255 0 255
-0.00118375  0.08016103  0.20015631 255 0 255
-0.00499917  0.08113562  0.21967343 255 0 255
0.06291412 0.0873405  0.20804267 255 0 255
0.08071589 0.08798092 0.20876066 255 0 255
3.25538466e-06 7.70115350e-02 2.00776851e-01 255 0 255
-0.01125309  0.07189473  0.19308782 255 0 255
-0.01385696  0.06982671  0.18242885 255 0 255
-0.0151105   0.07131422  0.18288155 255 0 255
0.04345005 0.08617365 0.20731607 255 0 255
0.06034113 0.08703809 0.20835687 255 0 255
-0.00122563  0.08015876  0.20015411 255 0 255
-0.00496514  0.08107122  0.21972378 255 0 255
0.062937   0.08735515 0.20809922 255 0 255
0.080773   0.08797411 0.20879728 255 0 255
-1.44312466e-05  7.70164046e-02  2.00836639e-01 255 0 255
-0.01095495  0.07195335  0.19445328 255 0 255
-0.01385696  0.06982671  0.18242885 255 0 255
-0.0151105   0.07131422  0.18288155 255 0 255
0.04351043 0.08626306 0.20742044 255 0 255
0.06038108 0.08708212 0.20840705 255 0 255
-0.0027503   0.08111357  0.20129894 255 0 255
-0.00492148  0.08101642  0.2197959  255 0 255
0.06301521 0.087376   0.20818363 255 0 255
0.08087479 0.08797679 0.20886642 255 0 255
-6.67189921e-05  7.69928792e-02  2.00900572e-01 255 0 255
-0.01063285  0.07203363  0.19597564 255 0 255
-0.01385696  0.06982671  0.18242885 255 0 255
-0.0151105   0.07131422  0.18288155 255 0 255
0.04358624 0.08639482 0.20757551 255 0 255
0.0604561  0.08715729 0.20849469 255 0 255
-0.00279637  0.08139687  0.20163561 255 0 255
-0.00486281  0.08094203  0.21989399 255 0 255
0.06313169 0.08742029 0.20830814 255 0 255
0.0810256  0.08799581 0.20896715 255 0 255
-0.01034469  0.07210758  0.19761727 255 0 255
-0.01040104  0.0720908   0.19726503 255 0 255
-0.01385696  0.06982671  0.18242885 255 0 255
-0.0151105   0.07131422  0.18288155 255 0 255
0.04373715 0.08672859 0.20806466 255 0 255
0.06096252 0.08738198 0.20886354 255 0 255
0.06361246 0.08760811 0.20867461 255 0 255
-0.00888764  0.07268381  0.20290589 255 0 255
-0.00924748  0.0725059   0.20160452 255 0 255
-0.00959077  0.07236069  0.20038281 255 0 255
-0.00991778  0.07223575  0.1991871  255 0 255
-0.01040104  0.0720908   0.19726503 255 0 255
-0.01385696  0.06982671  0.18242885 255 0 255
-0.0151105   0.07131422  0.18288155 255 0 255
0.04395259 0.08702413 0.208922   255 0 255
0.06160508 0.08752083 0.20956842 255 0 255
0.06385465 0.08781704 0.20903451 255 0 255
0.08259452 0.087952   0.2092014  255 0 255
-0.00720826  0.07394158  0.20982697 255 0 255
-0.00959077  0.07236069  0.20038281 255 0 255
-0.00991778  0.07223575  0.1991871  255 0 255
-0.01040104  0.0720908   0.19726503 255 0 255
-0.01385696  0.06982671  0.18242885 255 0 255
-0.0151105   0.07131422  0.18288155 255 0 255
0.04417216 0.08710955 0.20988145 255 0 255
0.08311772 0.08770731 0.20937061 255 0 255
-0.0061657   0.07513645  0.21478825 255 0 255
-0.0065248   0.07468968  0.21306356 255 0 255
-0.00720826  0.07394158  0.20982697 255 0 255
-0.00959077  0.07236069  0.20038281 255 0 255
-0.00991778  0.07223575  0.1991871  255 0 255
-0.01040104  0.0720908   0.19726503 255 0 255
-0.01385696  0.06982671  0.18242885 255 0 255
-0.0151105   0.07131422  0.18288155 255 0 255
0.0834479  0.08752426 0.20964559 255 0 255
-0.00576593  0.07564039  0.21648391 255 0 255
-0.0061657   0.07513645  0.21478825 255 0 255
-0.0065248   0.07468968  0.21306356 255 0 255
-0.00720826  0.07394158  0.20982697 255 0 255
-0.00959077  0.07236069  0.20038281 255 0 255
-0.00991778  0.07223575  0.1991871  255 0 255
-0.01040104  0.0720908   0.19726503 255 0 255
-0.01385696  0.06982671  0.18242885 255 0 255
-0.0151105   0.07131422  0.18288155 255 0 255
0.08412915 0.08674317 0.21000483 255 0 255
0.00509347 0.07735417 0.20132134 255 0 255
-0.0061657   0.07513645  0.21478825 255 0 255
-0.0065248   0.07468968  0.21306356 255 0 255
-0.00720826  0.07394158  0.20982697 255 0 255
-0.00959077  0.07236069  0.20038281 255 0 255
-0.00991778  0.07223575  0.1991871  255 0 255
-0.01040104  0.0720908   0.19726503 255 0 255
-0.01385696  0.06982671  0.18242885 255 0 255
-0.0151105   0.07131422  0.18288155 255 0 255
0.08465909 0.0859915  0.21034804 255 0 255
0.00536778 0.07738548 0.20107574 255 0 255
-0.0061657   0.07513645  0.21478825 255 0 255
-0.0065248   0.07468968  0.21306356 255 0 255
-0.00720826  0.07394158  0.20982697 255 0 255
-0.00959077  0.07236069  0.20038281 255 0 255
-0.00991778  0.07223575  0.1991871  255 0 255
-0.01040104  0.0720908   0.19726503 255 0 255
-0.01385696  0.06982671  0.18242885 255 0 255
-0.0151105   0.07131422  0.18288155 255 0 255
0.08529623 0.08512573 0.21084311 255 0 255
0.06660264 0.0852282  0.21104227 255 0 255
0.00541718 0.07726665 0.20085539 255 0 255
-0.0065248   0.07468968  0.21306356 255 0 255
-0.00720826  0.07394158  0.20982697 255 0 255
-0.00959077  0.07236069  0.20038281 255 0 255
-0.00991778  0.07223575  0.1991871  255 0 255
-0.01040104  0.0720908   0.19726503 255 0 255
-0.01385696  0.06982671  0.18242885 255 0 255
-0.0151105   0.07131422  0.18288155 255 0 255
0.06371392 0.08432423 0.21119132 255 0 255
0.04509906 0.08435463 0.21125368 255 0 255
0.0668436  0.08424714 0.2112643  255 0 255
0.08581203 0.08425581 0.21130286 255 0 255
0.00540126 0.07713636 0.20063369 255 0 255
-0.00959077  0.07236069  0.20038281 255 0 255
-0.00991778  0.07223575  0.1991871  255 0 255
-0.01040104  0.0720908   0.19726503 255 0 255
-0.01385696  0.06982671  0.18242885 255 0 255
-0.0151105   0.07131422  0.18288155 255 0 255
0.06373965 0.08418625 0.21121541 255 0 255
0.04512349 0.0842225  0.21129566 255 0 255
0.06691656 0.08408076 0.21131462 255 0 255
0.08585879 0.08409593 0.21137271 255 0 255
0.00539305 0.07711759 0.20059093 255 0 255
-0.00959077  0.07236069  0.20038281 255 0 255
-0.00991778  0.07223575  0.1991871  255 0 255
-0.01040104  0.0720908   0.19726503 255 0 255
-0.01385696  0.06982671  0.18242885 255 0 255
-0.0151105   0.07131422  0.18288155 255 0 255
-0.00128201  0.08084915  0.20303116 255 0 255
-0.0051793   0.0812994   0.21941365 255 0 255
0.06691656 0.08408076 0.21131462 255 0 255
0.08585879 0.08409593 0.21137271 255 0 255
0.00539305 0.07711759 0.20059093 255 0 255
-0.00959077  0.07236069  0.20038281 255 0 255
-0.00991778  0.07223575  0.1991871  255 0 255
-0.01040104  0.0720908   0.19726503 255 0 255
-0.01385696  0.06982671  0.18242885 255 0 255
-0.0151105   0.07131422  0.18288155 255 0 255
0.04132248 0.08310738 0.21121845 255 0 255
0.0061007  0.08050627 0.20180799 255 0 255
0.06691656 0.08408076 0.21131462 255 0 255
0.08585879 0.08409593 0.21137271 255 0 255
0.00539305 0.07711759 0.20059093 255 0 255
-0.00959077  0.07236069  0.20038281 255 0 255
-0.00991778  0.07223575  0.1991871  255 0 255
-0.01040104  0.0720908   0.19726503 255 0 255
-0.01385696  0.06982671  0.18242885 255 0 255
-0.0151105   0.07131422  0.18288155 255 0 255
0.04215257 0.08280648 0.21024195 255 0 255
0.01053033 0.08053596 0.20199079 255 0 255
0.06691656 0.08408076 0.21131462 255 0 255
0.08585879 0.08409593 0.21137271 255 0 255
0.00539305 0.07711759 0.20059093 255 0 255
-0.00959077  0.07236069  0.20038281 255 0 255
-0.00991778  0.07223575  0.1991871  255 0 255
-0.01040104  0.0720908   0.19726503 255 0 255
-0.01385696  0.06982671  0.18242885 255 0 255
-0.0151105   0.07131422  0.18288155 255 0 255
0.04245782 0.08268479 0.21066778 255 0 255
0.01228273 0.08075473 0.20306877 255 0 255
0.06691656 0.08408076 0.21131462 255 0 255
0.08585879 0.08409593 0.21137271 255 0 255
0.00539305 0.07711759 0.20059093 255 0 255
-0.00959077  0.07236069  0.20038281 255 0 255
-0.00991778  0.07223575  0.1991871  255 0 255
-0.01040104  0.0720908   0.19726503 255 0 255
-0.01385696  0.06982671  0.18242885 255 0 255
-0.0151105   0.07131422  0.18288155 255 0 255
0.04259464 0.08249077 0.21161404 255 0 255
0.09501983 0.08455453 0.21127919 255 0 255
0.06691656 0.08408076 0.21131462 255 0 255
0.08585879 0.08409593 0.21137271 255 0 255
0.00539305 0.07711759 0.20059093 255 0 255
-0.00959077  0.07236069  0.20038281 255 0 255
-0.00991778  0.07223575  0.1991871  255 0 255
-0.01040104  0.0720908   0.19726503 255 0 255
-0.01385696  0.06982671  0.18242885 255 0 255
-0.0151105   0.07131422  0.18288155 255 0 255
0.09481111 0.08417005 0.21073794 255 0 255
0.09501983 0.08455453 0.21127919 255 0 255
0.06691656 0.08408076 0.21131462 255 0 255
0.08585879 0.08409593 0.21137271 255 0 255
0.00539305 0.07711759 0.20059093 255 0 255
-0.00959077  0.07236069  0.20038281 255 0 255
-0.00991778  0.07223575  0.1991871  255 0 255
-0.01040104  0.0720908   0.19726503 255 0 255
-0.01385696  0.06982671  0.18242885 255 0 255
-0.0151105   0.07131422  0.18288155 255 0 255
0.09498577 0.08368751 0.21078683 255 0 255
0.01356915 0.07774638 0.19828409 255 0 255
0.06691656 0.08408076 0.21131462 255 0 255
0.08585879 0.08409593 0.21137271 255 0 255
0.00539305 0.07711759 0.20059093 255 0 255
-0.00959077  0.07236069  0.20038281 255 0 255
-0.00991778  0.07223575  0.1991871  255 0 255
-0.01040104  0.0720908   0.19726503 255 0 255
-0.01385696  0.06982671  0.18242885 255 0 255
-0.0151105   0.07131422  0.18288155 255 0 255
0.04316765 0.08142587 0.21199157 255 0 255
0.09521071 0.08308854 0.2110415  255 0 255
0.076887   0.08326828 0.21170699 255 0 255
0.01378324 0.07774209 0.19805997 255 0 255
0.00539305 0.07711759 0.20059093 255 0 255
-0.00959077  0.07236069  0.20038281 255 0 255
-0.00991778  0.07223575  0.1991871  255 0 255
-0.01040104  0.0720908   0.19726503 255 0 255
-0.01385696  0.06982671  0.18242885 255 0 255
-0.0151105   0.07131422  0.18288155 255 0 255
0.04332676 0.08108505 0.21181766 255 0 255
0.09506276 0.08252746 0.21150101 255 0 255
0.0765111  0.08260911 0.21188447 255 0 255
0.01361268 0.07764226 0.1979083  255 0 255
-0.00959077  0.07236069  0.20038281 255 0 255
-0.00991778  0.07223575  0.1991871  255 0 255
-0.01040104  0.0720908   0.19726503 255 0 255
-0.01385696  0.06982671  0.18242885 255 0 255
-0.0151105   0.07131422  0.18288155 255 0 255
0.04341159 0.08071279 0.21210495 255 0 255
0.09454693 0.08209726 0.21204457 255 0 255
0.07642459 0.08248948 0.21196481 255 0 255
0.01361268 0.07764226 0.1979083  255 0 255
-0.00959077  0.07236069  0.20038281 255 0 255
-0.00991778  0.07223575  0.1991871  255 0 255
-0.01040104  0.0720908   0.19726503 255 0 255
-0.01385696  0.06982671  0.18242885 255 0 255
-0.0151105   0.07131422  0.18288155 255 0 255
0.09240674 0.08153564 0.21206505 255 0 255
0.09454693 0.08209726 0.21204457 255 0 255
0.07642459 0.08248948 0.21196481 255 0 255
0.01361268 0.07764226 0.1979083  255 0 255
-0.00959077  0.07236069  0.20038281 255 0 255
-0.00991778  0.07223575  0.1991871  255 0 255
-0.01040104  0.0720908   0.19726503 255 0 255
