ply
format ascii 1.0
comment PCL generated
element vertex 396
property float x
property float y
property float z
property uchar red
property uchar green
property uchar blue
end_header
-0.01924069 -0.17999968  0.21461667 255 0 255
-0.01505524 -0.18723387  0.22238443 255 0 255
-0.0102895  -0.18611858  0.19604894 255 0 255
-0.01089443 -0.18610638  0.19607083 255 0 255
-0.01115571 -0.18606517  0.19608278 255 0 255
-0.01124262 -0.18600957  0.19608682 255 0 255
-0.01128667 -0.18594943  0.19608799 255 0 255
-0.01131711 -0.1858835   0.19608733 255 0 255
-0.01343962 -0.18574283  0.19608412 255 0 255
-0.01334587 -0.185702    0.19608068 255 0 255
-0.01329713 -0.18568508  0.19607797 255 0 255
-0.0132637  -0.18567625  0.19607552 255 0 255
-0.01323885 -0.1856709   0.19607349 255 0 255
-0.01321929 -0.18566722  0.19607182 255 0 255
-0.01320298 -0.18566439  0.19607042 255 0 255
-0.0131892  -0.18566211  0.19606923 255 0 255
-0.01317781 -0.1856603   0.19606826 255 0 255
-0.01316884 -0.18565893  0.19606749 255 0 255
-0.0131623  -0.185658    0.19606693 255 0 255
-0.01316072 -0.18565794  0.19606675 255 0 255
-0.01316117 -0.18565825  0.19606673 255 0 255
-0.01315784 -0.18565789  0.19606642 255 0 255
-0.01315557 -0.18565768  0.1960662  255 0 255
-0.01315467 -0.1856577   0.19606609 255 0 255
-0.01316034 -0.18565886  0.19606649 255 0 255
-0.01315897 -0.18565879  0.19606634 255 0 255
-0.01315293 -0.18565787  0.19606584 255 0 255
-0.01314989 -0.18565746  0.19606558 255 0 255
-0.0131522  -0.18565797  0.19606573 255 0 255
-0.01315659 -0.18565885  0.19606604 255 0 255
-0.01315781 -0.18565915  0.19606611 255 0 255
-0.01316209 -0.18566001  0.19606642 255 0 255
-0.02129757 -0.18000014  0.21555802 255 0 255
-0.01680468 -0.18704714  0.22921709 255 0 255
-0.02128148 -0.17999952  0.21555066 255 0 255
-0.01677215 -0.18705458  0.22921506 255 0 255
-0.02126845 -0.17999902  0.21554469 255 0 255
-0.0167459  -0.18706076  0.22921334 255 0 255
-0.0212603  -0.17999872  0.21554096 255 0 255
-0.01672937 -0.18706435  0.22921237 255 0 255
-0.02125607 -0.17999856  0.21553903 255 0 255
-0.01672081 -0.18706617  0.22921187 255 0 255
-0.02125484 -0.17999852  0.21553847 255 0 255
-0.01671832 -0.1870667   0.22921172 255 0 255
-0.02125586 -0.17999855  0.21553893 255 0 255
-0.0167204  -0.18706624  0.22921182 255 0 255
-0.02125832 -0.17999864  0.21554006 255 0 255
-0.01672541 -0.18706516  0.22921209 255 0 255
-0.02126156 -0.17999876  0.21554154 255 0 255
-0.01673201 -0.18706373  0.22921246 255 0 255
-0.02126513 -0.1799989   0.21554318 255 0 255
-0.01673927 -0.18706217  0.22921287 255 0 255
-0.02126893 -0.17999904  0.21554491 255 0 255
-0.01674695 -0.18706046  0.22921333 255 0 255
-0.02127273 -0.17999918  0.21554665 255 0 255
-0.01675462 -0.1870587   0.22921382 255 0 255
-0.02127596 -0.17999931  0.21554813 255 0 255
-0.01676115 -0.1870572   0.22921424 255 0 255
-0.02127876 -0.17999941  0.21554941 255 0 255
-0.01676679 -0.1870559   0.22921459 255 0 255
-0.02128106 -0.1799995   0.21555047 255 0 255
-0.01677138 -0.1870547   0.22921495 255 0 255
-0.02128298 -0.17999957  0.21555134 255 0 255
-0.01677524 -0.18705383  0.2292152  255 0 255
-0.02128469 -0.17999964  0.21555213 255 0 255
-0.01677868 -0.18705305  0.22921543 255 0 255
-0.02128596 -0.17999969  0.21555271 255 0 255
-0.01678123 -0.18705248  0.2292156  255 0 255
-0.02128625 -0.1799997   0.21555284 255 0 255
-0.01678183 -0.18705235  0.22921564 255 0 255
-0.0212863  -0.1799997   0.21555286 255 0 255
-0.01678191 -0.18705233  0.22921565 255 0 255
-0.02128639 -0.17999971  0.2155529  255 0 255
-0.0167821  -0.18705229  0.22921566 255 0 255
-0.02128686 -0.17999972  0.21555312 255 0 255
-0.01678304 -0.18705208  0.22921573 255 0 255
-0.02128689 -0.17999972  0.21555313 255 0 255
-0.0167831  -0.18705207  0.22921574 255 0 255
-0.0212867  -0.17999972  0.21555305 255 0 255
-0.01678272 -0.18705215  0.22921571 255 0 255
-0.02128684 -0.17999972  0.21555311 255 0 255
-0.016783   -0.18705209  0.22921573 255 0 255
-0.0212867  -0.17999972  0.21555305 255 0 255
-0.01678271 -0.18705216  0.22921572 255 0 255
-0.02128664 -0.17999971  0.21555302 255 0 255
-0.01678259 -0.18705219  0.22921571 255 0 255
-0.02128659 -0.17999971  0.21555299 255 0 255
-0.01678248 -0.18705222  0.2292157  255 0 255
-0.02128652 -0.17999971  0.21555296 255 0 255
-0.01678235 -0.18705225  0.2292157  255 0 255
-0.02128639 -0.17999971  0.2155529  255 0 255
-0.01678207 -0.18705231  0.22921568 255 0 255
-0.01725941 -0.18865672  0.23287121 255 0 255
-0.01720539 -0.18869944  0.2329296  255 0 255
-0.01720074 -0.18873001  0.23299573 255 0 255
-0.01727881 -0.18874007  0.23306925 255 0 255
-0.01740749 -0.1887352   0.23314488 255 0 255
-0.01755508 -0.18872307  0.23321691 255 0 255
-0.01775399 -0.18869465  0.23329321 255 0 255
-0.01798744 -0.18865139  0.23337213 255 0 255
-0.01823775 -0.18859496  0.23345156 255 0 255
-0.01846575 -0.18853594  0.23351756 255 0 255
-0.01867333 -0.18847474  0.23357481 255 0 255
-0.01887674 -0.18840927  0.2336286  255 0 255
-0.01908195 -0.18833543  0.23368117 255 0 255
-0.01924272 -0.18827484  0.23372051 255 0 255
-0.01930991 -0.18824892  0.23373623 255 0 255
-0.01934957 -0.18823193  0.23374556 255 0 255
-0.01938856 -0.18821529  0.23375445 255 0 255
-0.01942734 -0.18819893  0.23376319 255 0 255
-0.01947631 -0.1881794   0.23377404 255 0 255
-0.01952004 -0.18816028  0.23378436 255 0 255
-0.01955106 -0.18814629  0.23379177 255 0 255
-0.01960486 -0.18812215  0.23380473 255 0 255
-0.01966287 -0.18809642  0.23381845 255 0 255
-0.01973874 -0.18806193  0.23383666 255 0 255
-0.01982192 -0.18802471  0.23385634 255 0 255
-0.01991375 -0.18797985  0.23387924 255 0 255
-0.01999554 -0.18793921  0.23389976 255 0 255
-0.0200478  -0.18791324  0.23391272 255 0 255
-0.02008558 -0.18789456  0.2339221  255 0 255
-0.02010379 -0.18788552  0.23392657 255 0 255
-0.01726052 -0.18865559  0.23286949 255 0 255
-0.01720562 -0.1886968   0.23292384 255 0 255
-0.01719427 -0.18872796  0.23298675 255 0 255
-0.01728416 -0.18873595  0.23306458 255 0 255
-0.01741056 -0.18873278  0.23314157 255 0 255
-0.01756121 -0.18872091  0.23321635 255 0 255
-0.01776128 -0.18869258  0.23329396 255 0 255
-0.01799348 -0.18864951  0.23337293 255 0 255
-0.01822084 -0.18859885  0.23344615 255 0 255
-0.01841625 -0.18854859  0.23350352 255 0 255
-0.01860911 -0.18849413  0.23355676 255 0 255
-0.01879437 -0.18843596  0.2336061  255 0 255
-0.01899028 -0.18836949  0.23365625 255 0 255
-0.01917555 -0.18829961  0.23370348 255 0 255
-0.01929006 -0.18825689  0.23373087 255 0 255
-0.01932582 -0.18824204  0.23373971 255 0 255
-0.01934003 -0.18823598  0.23374318 255 0 255
-0.01934759 -0.18823275  0.23374498 255 0 255
-0.01935256 -0.18823063  0.23374613 255 0 255
-0.01935706 -0.18822871  0.23374716 255 0 255
-0.01937477 -0.18822113  0.23375115 255 0 255
-0.01939745 -0.18821146  0.23375626 255 0 255
-0.01941787 -0.18820286  0.23376086 255 0 255
-0.01943465 -0.18819581  0.23376465 255 0 255
-0.01944959 -0.18818955  0.23376804 255 0 255
-0.01946478 -0.18818402  0.23377123 255 0 255
-0.01947945 -0.18817803  0.2337745  255 0 255
-0.01949525 -0.18817131  0.23377812 255 0 255
-0.01951092 -0.18816431  0.23378183 255 0 255
-0.01952707 -0.18815698  0.23378562 255 0 255
-0.01726027 -0.18865642  0.23287118 255 0 255
-0.01720805 -0.18869864  0.23292961 255 0 255
-0.01720353 -0.18872902  0.23299534 255 0 255
-0.01728678 -0.18873804  0.23306996 255 0 255
-0.01742249 -0.18873258  0.23314687 255 0 255
-0.01757519 -0.18871845  0.23322053 255 0 255
-0.01777276 -0.18869038  0.23329747 255 0 255
-0.01800693 -0.1886464   0.23337707 255 0 255
-0.01825703 -0.18858984  0.2334562  255 0 255
-0.01848586 -0.18852975  0.23352244 255 0 255
-0.01869863 -0.18846643  0.2335807  255 0 255
-0.01890734 -0.18839809  0.23363569 255 0 255
-0.01911743 -0.18832165  0.23368958 255 0 255
-0.01930989 -0.18824883  0.23373579 255 0 255
-0.01946474 -0.18818456  0.23377201 255 0 255
-0.0195873  -0.1881295   0.23380062 255 0 255
-0.01970244 -0.18807807  0.23382747 255 0 255
-0.01980159 -0.18803242  0.23385057 255 0 255
-0.01986185 -0.18800429  0.23386438 255 0 255
-0.01990282 -0.18798373  0.23387456 255 0 255
-0.0199331  -0.18796865  0.2338822  255 0 255
-0.01995289 -0.18795884  0.23388721 255 0 255
-0.01996643 -0.18795213  0.23389065 255 0 255
-0.01997578 -0.1879475   0.23389301 255 0 255
-0.0199827  -0.18794407  0.23389475 255 0 255
-0.01998836 -0.18794125  0.23389616 255 0 255
-0.0199935  -0.18793869  0.23389743 255 0 255
-0.01999855 -0.18793616  0.23389867 255 0 255
-0.0200038  -0.18793354  0.23389996 255 0 255
-0.02000911 -0.18793088  0.23390126 255 0 255
-0.01032209 -0.18612049  0.19604996 255 0 255
-0.01095688 -0.18610934  0.19607349 255 0 255
-0.01123864 -0.18606304  0.19608707 255 0 255
-0.01135065 -0.18600305  0.19609279 255 0 255
-0.0113882  -0.18594789  0.19609383 255 0 255
-0.01142398 -0.1858784   0.19609341 255 0 255
-0.01346375 -0.18573707  0.19609053 255 0 255
-0.01337566 -0.18569899  0.19608651 255 0 255
-0.01332556 -0.18568188  0.19608324 255 0 255
-0.01329041 -0.18567242  0.19608045 255 0 255
-0.01326715 -0.18566714  0.19607844 255 0 255
-0.013243   -0.1856622   0.19607632 255 0 255
-0.0132223  -0.18565822  0.19607451 255 0 255
-0.01320509 -0.18565507  0.19607302 255 0 255
-0.01319061 -0.18565251  0.19607178 255 0 255
-0.01317669 -0.1856501   0.19607061 255 0 255
-0.01316402 -0.18564794  0.19606956 255 0 255
-0.01315109 -0.18564562  0.19606854 255 0 255
-0.01313641 -0.18564293  0.19606742 255 0 255
-0.0131267  -0.18564113  0.1960667  255 0 255
-0.01312231 -0.18564031  0.19606638 255 0 255
-0.01311985 -0.18563986  0.1960662  255 0 255
-0.01311787 -0.1856395   0.19606605 255 0 255
-0.01311582 -0.18563915  0.19606589 255 0 255
-0.01311247 -0.18563857  0.19606564 255 0 255
-0.01310889 -0.18563794  0.19606538 255 0 255
-0.0131058  -0.18563738  0.19606515 255 0 255
-0.01310361 -0.18563695  0.19606501 255 0 255
-0.01310116 -0.18563648  0.19606484 255 0 255
-0.01309836 -0.18563594  0.19606464 255 0 255
-0.01726638 -0.18865309  0.23286806 255 0 255
-0.01721702 -0.18869075  0.23291797 255 0 255
-0.01720126 -0.18872103  0.23297574 255 0 255
-0.01722733 -0.18873936  0.2330342  255 0 255
-0.01731469 -0.18874292  0.23309998 255 0 255
-0.01744279 -0.18873526  0.23316648 255 0 255
-0.01761219 -0.18871486  0.23323816 255 0 255
-0.01783201 -0.18867873  0.23331541 255 0 255
-0.01805561 -0.18863507  0.23339176 255 0 255
-0.01821783 -0.18859771  0.23344123 255 0 255
-0.01835035 -0.18856392  0.23347955 255 0 255
-0.01848785 -0.18852704  0.2335184  255 0 255
-0.01864213 -0.18848275  0.23356258 255 0 255
-0.0188172  -0.18842798  0.2336106  255 0 255
-0.01901362 -0.18836108  0.23366137 255 0 255
-0.01920894 -0.18828695  0.23371123 255 0 255
-0.0194016  -0.18820977  0.23375743 255 0 255
-0.01956213 -0.18814115  0.23379484 255 0 255
-0.01971186 -0.18807248  0.23382922 255 0 255
-0.01986135 -0.18800306  0.23386208 255 0 255
-0.0199405  -0.18796223  0.23388016 255 0 255
-0.01997153 -0.18794602  0.23388739 255 0 255
-0.01998528 -0.1879391   0.23389059 255 0 255
-0.01999219 -0.18793583  0.23389217 255 0 255
-0.01999643 -0.18793371  0.23389322 255 0 255
-0.02000066 -0.18793161  0.23389428 255 0 255
-0.02000486 -0.18792951  0.23389533 255 0 255
-0.0200081  -0.1879279   0.23389613 255 0 255
-0.02001144 -0.18792622  0.23389695 255 0 255
-0.02001482 -0.18792453  0.23389777 255 0 255
 0.09987017 -0.18005904  0.21607007 255 0 255
 0.09713681 -0.18107415  0.20432    255 0 255
 0.10095452 -0.18024246  0.21630369 255 0 255
 0.09671237 -0.18108715  0.20447011 255 0 255
 0.10206456 -0.18049719  0.21654243 255 0 255
 0.09688346 -0.18112846  0.20481999 255 0 255
 0.09688346 -0.18112846  0.20481999 255 0 255
 0.10264293 -0.18065763  0.2166665  255 0 255
 0.09757045 -0.18116549  0.20514419 255 0 255
 0.09757045 -0.18116549  0.20514419 255 0 255
 0.10285996 -0.18072286  0.21671299 255 0 255
 0.09783624 -0.18118214  0.20527946 255 0 255
 0.09783624 -0.18118214  0.20527946 255 0 255
 0.10293595 -0.18074635  0.21672925 255 0 255
 0.09793128 -0.18118781  0.20532951 255 0 255
 0.09793128 -0.18118781  0.20532951 255 0 255
 0.09790414 -0.18118636  0.20531503 255 0 255
 0.10296323 -0.18075488  0.21673506 255 0 255
 0.09796761 -0.18118873  0.2053495  255 0 255
 0.09796761 -0.18118873  0.2053495  255 0 255
 0.09790414 -0.18118636  0.20531503 255 0 255
 0.10297437 -0.18075837  0.21673741 255 0 255
 0.09798566 -0.18118756  0.20535972 255 0 255
 0.09798566 -0.18118756  0.20535972 255 0 255
 0.09790414 -0.18118636  0.20531503 255 0 255
 0.10298067 -0.18076035  0.21673872 255 0 255
 0.09799912 -0.18118551  0.205367   255 0 255
 0.09799912 -0.18118551  0.205367   255 0 255
 0.09790414 -0.18118636  0.20531503 255 0 255
 0.1029859 -0.180762   0.2167398 255 0 255
 0.09801209 -0.18118318  0.20537341 255 0 255
 0.09801209 -0.18118318  0.20537341 255 0 255
 0.09800171 -0.18118505  0.20536831 255 0 255
 0.09790414 -0.18118636  0.20531503 255 0 255
 0.10299115 -0.18076365  0.21674089 255 0 255
 0.0980254  -0.18118092  0.20537939 255 0 255
 0.0980254  -0.18118092  0.20537939 255 0 255
 0.09800171 -0.18118505  0.20536831 255 0 255
 0.09790414 -0.18118636  0.20531503 255 0 255
 0.1029966  -0.18076537  0.21674203 255 0 255
 0.09803883 -0.18117891  0.20538492 255 0 255
 0.09803883 -0.18117891  0.20538492 255 0 255
 0.09800171 -0.18118505  0.20536831 255 0 255
 0.09790414 -0.18118636  0.20531503 255 0 255
 0.10300215 -0.18076713  0.21674321 255 0 255
 0.09805193 -0.18117723  0.20538994 255 0 255
 0.09805193 -0.18117723  0.20538994 255 0 255
 0.09800171 -0.18118505  0.20536831 255 0 255
 0.09790414 -0.18118636  0.20531503 255 0 255
 0.10300776 -0.1807689   0.2167444  255 0 255
 0.09806449 -0.18117591  0.20539443 255 0 255
 0.09806449 -0.18117591  0.20539443 255 0 255
 0.09800171 -0.18118505  0.20536831 255 0 255
 0.09790414 -0.18118636  0.20531503 255 0 255
 0.10301511 -0.18077122  0.21674597 255 0 255
 0.09807848 -0.18117505  0.20539978 255 0 255
 0.09807848 -0.18117505  0.20539978 255 0 255
 0.09800171 -0.18118505  0.20536831 255 0 255
 0.09790414 -0.18118636  0.20531503 255 0 255
 0.10302858 -0.18077548  0.21674884 255 0 255
 0.09809925 -0.18117492  0.2054094  255 0 255
 0.09809925 -0.18117492  0.2054094  255 0 255
 0.09800171 -0.18118505  0.20536831 255 0 255
 0.09790414 -0.18118636  0.20531503 255 0 255
 0.10304877 -0.1807819   0.21675315 255 0 255
 0.09812768 -0.1811755   0.20542386 255 0 255
 0.09812768 -0.1811755   0.20542386 255 0 255
 0.09790414 -0.18118636  0.20531503 255 0 255
 0.10306764 -0.18078791  0.21675718 255 0 255
 0.09815403 -0.18117619  0.20543724 255 0 255
 0.09815403 -0.18117619  0.20543724 255 0 255
 0.09790414 -0.18118636  0.20531503 255 0 255
 0.10308627 -0.18079387  0.21676116 255 0 255
 0.09817942 -0.18117707  0.20545051 255 0 255
 0.09817942 -0.18117707  0.20545051 255 0 255
 0.09790414 -0.18118636  0.20531503 255 0 255
 0.10310748 -0.18080068  0.21676568 255 0 255
 0.09820731 -0.18117837  0.20546572 255 0 255
 0.09820731 -0.18117837  0.20546572 255 0 255
 0.09818988 -0.18117752  0.2054561  255 0 255
 0.09790414 -0.18118636  0.20531503 255 0 255
 0.10313458 -0.18080942  0.21677146 255 0 255
 0.09824195 -0.18118029  0.20548551 255 0 255
 0.09824195 -0.18118029  0.20548551 255 0 255
 0.09818988 -0.18117752  0.2054561  255 0 255
 0.09790414 -0.18118636  0.20531503 255 0 255
 0.10316186 -0.18081826  0.21677728 255 0 255
 0.09827651 -0.18118234  0.2055056  255 0 255
 0.09827651 -0.18118234  0.2055056  255 0 255
 0.09818988 -0.18117752  0.2054561  255 0 255
 0.09790414 -0.18118636  0.20531503 255 0 255
 0.10318586 -0.18082608  0.21678239 255 0 255
 0.09830678 -0.18118423  0.20552337 255 0 255
 0.09830678 -0.18118423  0.20552337 255 0 255
 0.09818988 -0.18117752  0.2054561  255 0 255
 0.09790414 -0.18118636  0.20531503 255 0 255
 0.10320525 -0.18083242  0.21678653 255 0 255
 0.09833114 -0.18118582  0.20553778 255 0 255
 0.09833114 -0.18118582  0.20553778 255 0 255
 0.09818988 -0.18117752  0.2054561  255 0 255
 0.09790414 -0.18118636  0.20531503 255 0 255
 0.10321956 -0.18083712  0.21678958 255 0 255
 0.09834901 -0.18118705  0.2055484  255 0 255
 0.09834901 -0.18118705  0.2055484  255 0 255
 0.09790414 -0.18118636  0.20531503 255 0 255
 0.10323511 -0.18084223  0.21679295 255 0 255
 0.09836928 -0.18118927  0.2055563  255 0 255
 0.09836928 -0.18118927  0.2055563  255 0 255
 0.10325884 -0.18085005  0.21679806 255 0 255
 0.09840002 -0.18119211  0.20557052 255 0 255
 0.09840002 -0.18119211  0.20557052 255 0 255
 0.09839405 -0.18119162  0.20556744 255 0 255
 0.09836928 -0.18118927  0.2055563  255 0 255
 0.10327517 -0.18085546  0.21680156 255 0 255
 0.09842069 -0.18119386  0.20558154 255 0 255
 0.09842069 -0.18119386  0.20558154 255 0 255
 0.09839405 -0.18119162  0.20556744 255 0 255
 0.09836928 -0.18118927  0.2055563  255 0 255
 0.10329379 -0.18086165  0.21680553 255 0 255
 0.09844421 -0.18119553  0.20559535 255 0 255
 0.09844421 -0.18119553  0.20559535 255 0 255
 0.09836928 -0.18118927  0.2055563  255 0 255
 0.10331449 -0.18086855  0.21680994 255 0 255
 0.09847056 -0.18119727  0.20561113 255 0 255
 0.09847056 -0.18119727  0.20561113 255 0 255
 0.09836928 -0.18118927  0.2055563  255 0 255
-0.01033056 -0.18612123  0.19605022 255 0 255
-0.01097494 -0.18611165  0.19607427 255 0 255
-0.01125388 -0.18606553  0.1960879  255 0 255
-0.01136168 -0.18600375  0.19609345 255 0 255
-0.01139705 -0.18594772  0.19609437 255 0 255
-0.01143206 -0.18587919  0.19609396 255 0 255
-0.01347235 -0.18573955  0.19609139 255 0 255
-0.01338761 -0.18570225  0.1960876  255 0 255
-0.01333655 -0.18568484  0.19608416 255 0 255
-0.01330313 -0.18567578  0.19608145 255 0 255
-0.01328002 -0.18567052  0.19607942 255 0 255
-0.01325946 -0.18566629  0.19607756 255 0 255
-0.01323987 -0.18566257  0.19607579 255 0 255
-0.01321934 -0.18565885  0.19607395 255 0 255
-0.01320462 -0.18565626  0.19607266 255 0 255
-0.01319495 -0.1856546   0.19607182 255 0 255
-0.01319033 -0.18565378  0.19607143 255 0 255
-0.013188   -0.18565334  0.19607124 255 0 255
-0.01318619 -0.18565298  0.1960711  255 0 255
-0.01318432 -0.18565261  0.19607096 255 0 255
-0.01318213 -0.18565218  0.19607078 255 0 255
-0.01317948 -0.18565168  0.19607057 255 0 255
-0.01317636 -0.18565108  0.19607033 255 0 255
-0.01317286 -0.18565041  0.19607005 255 0 255
-0.01316903 -0.18564967  0.19606976 255 0 255
-0.01316469 -0.18564882  0.19606943 255 0 255
-0.01315991 -0.18564787  0.19606907 255 0 255
-0.013155  -0.1856469  0.1960687 255 0 255
